# .PCD v0.7 - Point Cloud Data file format
VERSION 0.7
FIELDS x y z rgb
SIZE 4 4 4 4
TYPE F F F U
COUNT 1 1 1 1
WIDTH 1108
HEIGHT 1
VIEWPOINT 0 0 0 1 0 0 0
POINTS 1108
DATA ascii
-19.59573 -21.405447 110.5506 4278235376
-17.683523 -21.377401 110.79328 4278235376
-15.9537 -21.287352 111.01299 4278235376
-13.910274 -21.409195 111.17202 4278235376
-12.080433 -21.528023 111.28748 4278235376
-10.252451 -21.136684 111.54907 4278235376
-8.4591656 -21.345314 111.5896 4278235376
-6.6444416 -21.43302 111.64948 4278235376
-4.6301994 -21.255495 111.78174 4278366448
-2.6646652 -21.557608 111.72799 4285256182
-0.74267131 -21.576729 111.74279 4294376702
0.75940549 -21.514788 111.7634 4294967295
2.7198308 -21.644312 111.698 4294967295
4.6818042 -21.324898 111.7573 4294967295
6.4431009 -21.413023 111.66465 4294967295
8.259841 -21.376047 111.59026 4294967295
10.098606 -21.298197 111.50633 4294967295
12.0907 -21.196373 111.39597 4293917438
14.095009 -21.508547 111.12231 4289258745
15.959539 -21.207277 111.03854 4280531954
17.465626 -21.317343 110.83802 4279416305
19.701265 -21.324619 110.56345 4278235376
21.421791 -21.285357 110.34386 4278235376
23.286596 -21.474054 110.00779 4278235376
25.192484 -21.37088 109.73641 4278235376
26.998272 -21.416321 109.40951 4278235376
28.839809 -21.163656 109.14913 4278235376
30.626598 -21.333252 108.74032 4278235376
32.602787 -21.490419 108.27147 4278235376
34.315666 -21.354475 107.92995 4278235376
36.089375 -21.324505 107.5181 4278235376
38.122849 -21.316059 107.00922 4278235376
39.860119 -21.562048 106.46993 4278235376
41.683247 -21.490499 105.98426 4278235376
43.687271 -21.566748 105.37212 4278235376
45.413033 -21.166767 104.96509 4278235376
47.447697 -21.310324 104.26386 4278235376
49.071972 -21.244881 103.73574 4278235376
50.857834 -21.376234 103.06834 4278235376
52.931339 -21.322313 102.32359 4279810033
54.949242 -21.503756 101.49361 4284074997
56.696232 -21.399498 100.82607 4290439674
58.499184 -21.480738 100.05283 4294311166
60.223148 -21.210293 99.389511 4294967295
62.215328 -21.171066 98.508713 4294967295
64.012711 -21.621403 97.542374 4294967295
65.893394 -21.421663 96.694443 4294967295
67.85511 -21.492064 95.693703 4294967295
69.825554 -21.418493 94.692329 4294967295
71.638725 -21.491386 93.697678 4294967295
73.403236 -21.301676 92.770363 4294967295
75.131767 -21.359901 91.763809 4294310910
77.230324 -21.321749 90.529732 4283222004
79.020439 -21.467251 89.392822 4278235376
80.810768 -21.357975 88.28891 4278235376
82.870628 -21.305553 86.955269 4278235376
84.591087 -21.205959 85.818588 4278235376
86.432396 -21.684214 84.417091 4278235376
88.080452 -21.368935 83.316696 4278235376
90.061371 -21.449728 81.83606 4279547633
91.967552 -21.29339 80.422745 4290898939
93.933678 -21.302683 78.876457 4294967295
95.778725 -21.399031 77.360832 4294967295
97.42659 -21.267427 76.019592 4294967295
99.26403 -21.346212 74.430916 4294967295
101.2056 -21.229193 72.746582 4294967295
102.88318 -21.337736 71.204544 4294967295
104.93471 -21.512735 69.257523 4294967295
106.85215 -21.429705 67.434464 4294967295
108.39079 -21.307409 65.942787 4294967295
110.61092 -21.539595 63.648834 4294967295
112.39862 -21.335922 61.821026 4294967295
114.21634 -21.07658 59.917774 4294967295
116.06821 -21.384106 57.824291 4294967295
117.79006 -21.20071 55.90831 4294967295
119.69731 -21.401476 53.662071 4294967295
121.51096 -21.044872 51.554337 4294967295
123.53082 -21.407639 49.024868 4294967295
125.44434 -21.162245 46.647686 4294967295
127.01422 -21.303965 44.600258 4294967295
128.97063 -21.505205 41.98418 4294967295
130.75615 -21.128008 39.602093 4294967295
132.96173 -21.526953 36.473946 4294967295
134.56218 -21.358061 34.195179 4294967295
136.52272 -21.556278 31.29262 4294967295
138.38582 -21.618567 28.475111 4294967295
140.07652 -21.292582 25.885803 4294967295
141.96706 -21.363419 22.882364 4294967295
143.96104 -21.305496 19.639074 4294967295
145.73151 -21.375605 16.678078 4294967295
147.67632 -21.441654 13.34503 4291085508
149.55548 -21.255358 10.049596 4280427042
151.7079 -21.471855 6.1593246 4278190080
153.02206 -21.341295 3.7342255 4278190080
154.88179 -21.332775 0.22593348 4278190080
-156.16422 -19.598181 0 4278190080
-155.06703 -19.392792 0 4278190080
-153.15984 -19.562334 3.4947586 4278190080
-151.54527 -19.543787 6.491972 4278650631
-149.46852 -19.464279 10.255664 4286874756
-147.6552 -19.699924 13.447948 4292861919
-145.78453 -19.537373 16.674629 4294967295
-143.8454 -19.445219 19.933634 4294967295
-142.17284 -19.362514 22.678299 4294967295
-140.12027 -19.381973 25.955832 4294967295
-138.34633 -19.583662 28.700964 4294967295
-136.53659 -19.487299 31.455578 4294967295
-134.79567 -19.428257 34.039864 4294967295
-132.97429 -19.401455 36.675373 4294967295
-131.0262 -19.314362 39.427963 4294967295
-129.0085 -19.373106 42.18597 4294967295
-127.32538 -19.416372 44.427521 4294967295
-125.2482 -19.635006 47.099762 4294967295
-123.60126 -19.558867 49.193413 4294967295
-121.65469 -19.482826 51.604816 4294967295
-119.75276 -19.622604 53.867134 4294967295
-118.08971 -19.352703 55.85186 4294967295
-116.05584 -19.345922 58.169781 4294967295
-114.20201 -19.64986 60.173691 4294967295
-112.3869 -19.563082 62.143166 4294967295
-110.35476 -19.532032 64.276482 4294967295
-108.56888 -19.433527 66.111786 4294967295
-106.70476 -19.226892 67.995918 4294967295
-104.83411 -19.329739 69.779968 4294967295
-102.8541 -19.429558 71.61396 4294967295
-101.2381 -19.510326 73.069122 4294967295
-99.335854 -19.256264 74.804413 4294967295
-97.391159 -19.295635 76.469391 4293589245
-95.509972 -19.555685 77.985794 4285453046
-93.592285 -19.539818 79.541687 4278235376
-91.869179 -19.5263 80.899788 4278235376
-90.091263 -19.395771 82.287987 4278235376
-88.337708 -19.423786 83.585304 4278235376
-86.381302 -19.429506 84.994751 4278235376
-84.559265 -19.689137 86.208115 4278235376
-82.694305 -19.453228 87.526482 4278235376
-80.754906 -19.444054 88.801277 4278235376
-79.110825 -19.524649 89.828232 4278235376
-76.88739 -19.661139 91.16291 4278235376
-75.211159 -19.511404 92.196312 4278235376
-73.421112 -19.490982 93.233505 4278235376
-71.506966 -19.439512 94.313934 4278235376
-69.785164 -19.335049 95.269287 4278235376
-67.792282 -19.500093 96.266029 4278235376
-66.122032 -19.330118 97.15078 4278235376
-63.776192 -19.423681 98.263184 4278235376
-62.162167 -19.33717 99.038147 4278235376
-60.401306 -19.755749 99.719894 4278235376
-58.525265 -19.44445 100.61805 4278235376
-56.635933 -19.404615 101.41782 4280269297
-54.905441 -19.555773 102.07215 4286568439
-52.88921 -19.497847 102.86588 4293786109
-51.103634 -19.685553 103.47407 4294967295
-49.2075 -19.393442 104.22766 4294967295
-47.323784 -19.4748 104.84414 4294967295
-45.48431 -19.461365 105.4445 4294967295
-43.327805 -19.528301 106.09094 4294967295
-41.833412 -19.512953 106.53512 4288668153
-39.856922 -19.449398 107.10868 4278235376
-38.105408 -19.385662 107.59443 4278235376
-36.27013 -19.435324 108.04549 4278235376
-34.092583 -19.534996 108.53636 4278235376
-32.498943 -19.338329 108.95178 4278235376
-30.751387 -19.642057 109.23525 4278235376
-28.880486 -19.537462 109.63998 4278235376
-26.904936 -19.368319 110.0577 4278235376
-25.002253 -19.476355 110.35487 4278235376
-23.335724 -18.982431 110.76614 4278235376
-21.553699 -19.490345 110.88291 4278235376
-19.544287 -19.56653 111.13287 4278235376
-17.604599 -19.487322 111.39369 4278235376
-15.758442 -19.290426 111.65441 4278235376
-13.929837 -19.56859 111.74973 4278235376
-12.218391 -19.592705 111.88894 4278235376
-10.123374 -19.527363 112.06151 4278235376
-8.4344988 -19.543596 112.15893 4278235376
-6.3359265 -19.467232 112.2829 4278235376
-4.5440249 -19.380991 112.3722 4278891504
-2.6640782 -19.471357 112.3893 4288339960
-0.9613108 -19.507286 112.39861 4292670716
0.89086622 -19.419973 112.42521 4294967295
2.8250093 -19.560165 112.35973 4294967295
4.6349597 -19.383848 112.36863 4294967295
6.4974523 -19.408649 112.29366 4294967295
8.4559813 -19.503757 112.1697 4294967295
10.270473 -19.611328 112.02647 4294967295
12.230586 -19.628073 111.87732 4289849338
13.945619 -19.476948 111.7757 4281319154
15.718986 -19.546648 111.58241 4278694640
17.602037 -19.460312 111.40202 4278235376
19.682781 -19.592255 111.10728 4278235376
21.560026 -19.280783 110.94373 4278235376
23.200457 -19.395599 110.66692 4278235376
25.121084 -19.556101 110.31153 4278235376
26.855247 -19.488012 110.03156 4278235376
28.905422 -19.533092 109.63644 4278235376
30.772806 -19.575968 109.25024 4278235376
32.435154 -19.539291 108.90745 4278235376
34.331944 -19.547298 108.47736 4278235376
36.1712 -19.527349 108.0433 4278235376
38.021454 -19.375051 107.61929 4278235376
40.010025 -19.509102 107.04964 4278235376
41.736362 -19.560539 106.54951 4278235376
43.699886 -19.52986 105.97831 4278235376
45.54641 -19.595583 105.38692 4278235376
47.375629 -19.318136 104.87057 4278235376
49.100689 -19.640499 104.19579 4278235376
50.991646 -19.450642 103.57985 4278235376
53.053223 -19.625971 102.76857 4278235376
54.784344 -19.376961 102.16856 4279153904
56.583138 -19.560936 101.39709 4283878133
58.476612 -19.437651 100.64059 4292473852
60.255241 -19.455748 99.864929 4293392381
62.255783 -19.567657 98.934357 4294967295
64.170555 -19.336988 98.098305 4294967295
65.935913 -19.399843 97.224892 4294967295
67.896057 -19.467985 96.221146 4294967295
69.519875 -19.355959 95.404556 4294967295
71.482239 -19.708454 94.259415 4294967295
73.203079 -19.24296 93.418419 4294967295
75.236115 -19.436337 92.200157 4293064445
77.053795 -19.413593 91.12278 4284206325
78.928963 -19.662109 89.90892 4278235376
80.9198 -19.570786 88.66465 4278235376
82.522987 -19.655546 87.593071 4278235376
84.423874 -19.401659 86.367645 4278235376
86.231865 -19.450491 85.095894 4278235376
88.048241 -19.671764 83.741226 4278235376
89.812096 -19.507105 82.473534 4279678705
91.84993 -19.369101 80.948624 4288733689
93.715019 -19.516338 79.448723 4294967295
95.582077 -19.322756 77.974854 4294967295
97.588928 -19.583033 76.243195 4294967295
99.436165 -19.588549 74.650703 4294967295
101.29819 -19.593641 72.998779 4294967295
102.9801 -19.631514 71.459084 4294967295
104.91138 -19.675869 69.642059 4294967295
106.77817 -19.60166 67.856445 4294967295
108.63287 -19.668728 66.005836 4294967295
110.55477 -19.375782 64.096542 4294967295
112.34519 -19.479294 62.201435 4294967295
114.04295 -19.363321 60.393353 4294967295
115.8797 -19.55574 58.334595 4294967295
117.88253 -19.266264 56.103828 4294967295
119.71127 -19.2666 53.967388 4294967295
121.76659 -19.486366 51.468098 4294967295
123.5831 -19.480104 49.226501 4294967295
125.3991 -19.594513 46.911514 4294967295
127.22311 -19.368673 44.567951 4294967295
128.83934 -19.306772 42.421627 4294967295
131.002 -19.564009 39.435356 4294967295
132.91745 -19.556953 36.741222 4294967295
134.64815 -19.523138 34.246922 4294967295
136.43944 -19.425013 31.60638 4294967295
138.5502 -19.435617 28.398508 4294967295
140.27821 -19.544859 25.695616 4294967295
141.88136 -19.61236 23.134068 4294967295
143.88086 -19.531525 19.870291 4294967295
145.79202 -19.456556 16.665489 4294967295
147.65022 -19.463278 13.465171 4292730333
149.44109 -19.467878 10.304573 4282006074
151.40877 -19.512114 6.7429967 4278190080
152.99977 -19.438345 3.7959983 4278190080
154.78807 -19.441139 0.4069649 4278190080
-156.32472 -17.555614 0 4278190080
-154.85841 -17.541761 0.27331811 4278190080
-153.20648 -17.503181 3.4249957 4278190080
-151.30843 -17.619957 6.960093 4278190080
-149.57475 -17.581299 10.113716 4288387995
-147.70146 -17.805445 13.432291 4294243572
-145.84982 -17.497927 16.64909 4294967295
-144.02203 -17.585939 19.733072 4294967295
-142.09593 -17.600006 22.904291 4294967295
-140.21393 -17.388159 25.937445 4294967295
-138.23114 -17.415476 29.036184 4294967295
-136.31036 -17.584105 31.947531 4294967295
-134.70869 -17.658537 34.320354 4294967295
-132.78415 -17.727222 37.103382 4294967295
-130.86717 -17.702335 39.810318 4294967295
-129.00562 -17.812119 42.357216 4294967295
-127.18623 -17.705069 44.804535 4294967295
-125.03407 -17.513151 47.62878 4294967295
-123.47617 -17.748867 49.577606 4294967295
-121.61859 -17.803389 51.869843 4294967295
-119.86536 -17.588043 54.011993 4294967295
-117.88574 -17.523457 56.345734 4294967295
-116.30167 -17.625599 58.144905 4294967295
-114.39051 -17.555449 60.287251 4294967295
-112.16484 -17.508287 62.703663 4294967295
-110.64001 -17.540766 64.304466 4294967295
-108.81896 -17.806057 66.132896 4294967295
-106.75592 -17.510931 68.238312 4294967295
-104.87234 -17.382345 70.084129 4294967295
-102.97629 -17.781502 71.800957 4294967295
-101.13673 -17.423336 73.545555 4294967295
-99.336288 -17.623451 75.111633 4294967295
-97.450218 -17.644363 76.737709 4293720573
-95.793068 -17.67457 78.124924 4283287796
-93.874825 -17.681108 79.691078 4278563312
-91.938545 -17.47831 81.264732 4278235376
-90.173386 -17.631659 82.59301 4278235376
-88.309364 -17.697037 83.972305 4278235376
-86.318207 -17.602804 85.432594 4278300912
-84.456116 -17.66073 86.726189 4279482097
-82.631187 -17.572708 87.985237 4281647347
-80.789352 -17.725521 89.166641 4280072433
-78.914803 -17.602152 90.389885 4281909747
-77.181061 -17.570145 91.469772 4281253618
-75.172295 -17.718973 92.639809 4279482097
-73.161415 -17.549814 93.839417 4279153904
-71.331337 -17.725008 94.821198 4278235376
-69.565628 -17.708708 95.778236 4278432240
-67.581879 -17.650341 96.826141 4278235376
-66.089455 -17.658991 97.577217 4278235376
-63.985714 -17.644257 98.606239 4278235376
-62.083424 -17.543589 99.521873 4278235376
-59.961445 -17.689529 100.44259 4278235376
-58.452408 -17.706472 101.09322 4278235376
-56.682743 -17.620525 101.85631 4278432240
-54.682827 -17.585266 102.67089 4282697203
-53.023159 -17.372492 103.36582 4290242810
-51.346081 -17.533577 103.95241 4294114302
-48.945202 -17.749195 104.75376 4294967295
-47.190178 -17.703279 105.36059 4294967295
-45.552628 -17.887985 105.84638 4294967295
-43.657608 -17.511576 106.53274 4294967295
-41.813896 -17.600908 107.05756 4290045946
-39.936153 -17.444019 107.62832 4278235376
-37.843029 -17.749552 108.10949 4278235376
-36.12204 -17.33535 108.65205 4278235376
-34.338451 -17.604189 109.01122 4278235376
-32.436798 -17.828966 109.38308 4278235376
-30.642008 -17.617071 109.82161 4278235376
-28.900707 -17.435768 110.21837 4278235376
-26.846807 -17.605745 110.55817 4278235376
-25.067356 -17.750008 110.8288 4278235376
-23.0952 -17.599298 111.18561 4278563312
-21.369282 -17.524157 111.46073 4278300912
-19.536036 -17.686308 111.66621 4278235376
-17.519588 -17.746119 111.89725 4278235376
-15.998833 -17.442028 112.14686 4278432240
-13.7778 -17.549253 112.33625 4278431984
-12.152434 -17.592632 112.46324 4278432240
-9.9648352 -17.618595 112.61514 4278431984
-8.232687 -17.61392 112.71976 4278432240
-6.5660748 -17.595688 112.80547 4278431984
-4.5462871 -17.577013 112.88397 4279547633
-2.7173295 -17.69294 112.89611 4287290360
-0.85076767 -17.598223 112.9435 4294245374
0.94698119 -17.700401 112.9153 4294967295
3.0084383 -17.529188 112.93484 4294967295
4.7626128 -17.624813 112.8645 4294967295
6.4933066 -17.64929 112.79412 4294967295
8.2517776 -17.699341 112.69566 4294967295
10.13983 -17.58444 112.61279 4287683832
12.035098 -17.684158 112.44793 4281778419
13.857135 -17.528444 112.33459 4278300912
15.891806 -17.454664 112.15477 4278235376
17.425316 -17.805626 111.89206 4278235376
19.412712 -17.748796 111.66534 4278235376
21.388231 -17.584431 111.44204 4278235376
23.108091 -17.613565 111.17984 4278235376
24.935053 -17.694403 110.86572 4278235376
26.863791 -17.454617 110.59486 4278235376
28.810293 -17.589893 110.19557 4278235376
30.774487 -17.553099 109.81091 4278235376
32.621986 -17.653978 109.38839 4278432240
34.41634 -17.594576 108.99551 4279088368
36.369755 -17.584047 108.52675 4278563312
38.148388 -17.788586 108.01972 4278300912
39.795605 -17.451899 107.66496 4278235376
41.720638 -17.533222 107.10183 4278235376
43.741425 -17.57696 106.49065 4278235376
45.470814 -17.784126 105.89909 4278235376
47.563961 -17.512476 105.28389 4278235376
48.996235 -17.61718 104.76927 4278235376
51.09309 -17.780924 103.98313 4278235376
52.7724 -17.55411 103.41647 4278235376
54.700504 -17.774961 102.61719 4278235376
56.946487 -17.726526 101.72156 4278891504
58.406868 -17.630199 101.13116 4284927990
60.250038 -17.515684 100.35671 4291489531
62.154079 -17.685255 99.455658 4294967295
64.158348 -17.704571 98.509392 4294967295
66.024078 -17.631332 97.616188 4294967295
67.914146 -17.515694 96.6866 4294967295
69.604736 -17.669655 95.766441 4294967295
71.275787 -17.743998 94.847328 4294967295
73.003479 -17.477209 93.945122 4294967295
75.271843 -17.595833 92.608543 4293720573
77.089676 -17.659952 91.505791 4283812597
78.794189 -17.763248 90.430603 4278235376
80.785133 -17.658278 89.183784 4278235376
82.87397 -17.689022 87.79792 4278235376
84.663879 -17.604031 86.594284 4278235376
86.437889 -17.552197 85.357597 4278235376
88.228065 -17.580421 84.055527 4278235376
89.947708 -17.790701 82.732208 4280991218
92.075264 -17.660133 81.122726 4289586682
93.748497 -17.659185 79.796829 4294967295
95.53495 -17.741659 78.325974 4294967295
97.30146 -17.775108 76.840065 4294967295
99.427818 -17.670586 75.022842 4294967295
101.24242 -17.605261 73.418388 4294967295
103.09532 -17.796642 71.687881 4294967295
104.85929 -17.557274 70.067551 4294967295
106.66766 -17.70289 68.29364 4294967295
108.53461 -17.671564 66.44175 4294967295
110.49328 -17.592829 64.449081 4294967295
112.41795 -17.712158 62.403191 4294967295
114.1683 -17.578543 60.52803 4294967295
116.08427 -17.986883 58.339462 4294967295
117.8597 -17.529217 56.375114 4294967295
119.89778 -17.701273 53.958721 4294967295
121.62019 -17.582033 51.89547 4294967295
123.50611 -17.449377 49.575489 4294967295
125.44357 -17.465137 47.107235 4294967295
127.3838 -17.82567 44.530014 4294967295
129.02332 -17.857944 42.328514 4294967295
130.88161 -17.573296 39.802513 4294967295
132.85329 -17.757084 37.001823 4294967295
134.65677 -17.532099 34.406975 4294967295
136.4705 -17.659853 31.701031 4294967295
138.43666 -17.592468 28.706648 4294967295
140.1454 -17.516748 26.038088 4294967295
142.15891 -17.858194 22.787725 4294967295
144.08676 -17.607254 19.624033 4294967295
145.71214 -17.680111 16.877026 4294967295
147.64436 -17.582321 13.539558 4294111986
149.45 -17.557732 10.338386 4281940281
151.18428 -17.68549 7.1871524 4278190080
153.06584 -17.562693 3.6896248 4278190080
154.543 -17.6763 0.88007623 4278190080
-156.39433 -15.831291 0 4278190080
-154.9738 -15.678915 0.050825689 4278190080
-153.17036 -15.837782 3.5062618 4278190080
-151.29507 -15.728948 7.0144696 4278650631
-149.41832 -15.995679 10.432115 4286085240
-147.65236 -15.75177 13.581414 4294243572
-145.83916 -15.798079 16.731167 4294967295
-143.83061 -15.80545 20.132729 4294967295
-141.97916 -15.707487 23.192478 4294967295
-140.18973 -15.791493 26.06888 4294967295
-138.16002 -15.700901 29.257776 4294967295
-136.18387 -16.127962 32.244164 4294967295
-134.67079 -15.734102 34.52557 4294967295
-132.93907 -15.692758 37.051456 4294967295
-130.66451 -15.926457 40.25423 4294967295
-129.20255 -15.78493 42.284023 4294967295
-127.06244 -15.79957 45.162472 4294967295
-125.4149 -15.761715 47.324764 4294967295
-123.38333 -15.721297 49.922359 4294967295
-121.65189 -15.844319 52.060642 4294967295
-119.54002 -15.849477 54.612759 4294967295
-118.02422 -15.697872 56.415806 4294967295
-116.10471 -15.762672 58.613194 4294967295
-114.10435 -15.894856 60.829334 4294967295
-112.47585 -15.746923 62.618885 4294967295
-110.61835 -15.918187 64.563408 4294967295
-108.61528 -15.627643 66.6661 4294967295
-106.87727 -15.817548 68.379143 4294967295
-104.91537 -15.987623 70.263573 4294967295
-102.84168 -15.517127 72.292877 4294967295
-101.15804 -15.859261 73.785271 4294967295
-99.284004 -15.640967 75.49295 4294967295
-97.473869 -15.69795 77.054619 4291358459
-95.480103 -15.602505 78.749794 4283943925
-93.743652 -15.675592 80.157951 4279022832
-91.834343 -15.636517 81.681641 4278235376
-90.012611 -15.881149 83.043335 4279022576
-88.256508 -15.830232 84.367256 4280597490
-86.384949 -15.748578 85.742477 4282697203
-84.471916 -15.677205 87.103485 4287683832
-82.52771 -15.919366 88.384544 4287355896
-80.820786 -15.792875 89.537354 4286765303
-79.036705 -15.800982 90.681061 4288930553
-77.072006 -15.741197 91.913643 4291227131
-75.296432 -15.725606 92.984627 4290374138
-73.300217 -15.746031 94.141647 4287421432
-71.482399 -15.850719 95.141998 4284731125
-69.669693 -15.679554 96.162041 4280531698
-67.92807 -15.788396 97.055794 4278563312
-65.892128 -15.981273 98.048538 4278235376
-64.02639 -15.717815 99.015755 4278235376
-62.179733 -15.823861 99.863869 4278235376
-60.241882 -15.838024 100.74038 4278235376
-58.493736 -16.008722 101.46747 4278235376
-56.576187 -15.774657 102.32536 4278235376
-54.874294 -15.850537 102.99805 4280006897
-53.045357 -15.912223 103.6972 4286371575
-51.030731 -15.801721 104.4741 4294967295
-49.365047 -15.749129 105.08234 4294967295
-47.236389 -15.788881 105.80264 4294967295
-45.673203 -15.841967 106.30274 4294967295
-43.823132 -15.717793 106.91176 4294967295
-41.844685 -15.775495 107.49014 4287749624
-39.836929 -15.840429 108.04439 4278235376
-38.205021 -15.850174 108.48199 4278235376
-36.312622 -15.911757 108.95255 4278235376
-34.473392 -15.679016 109.45229 4278235376
-32.634079 -15.561718 109.90028 4278235376
-30.464073 -15.899458 110.2865 4278235376
-28.892832 -15.674192 110.65475 4278366448
-26.995289 -15.652954 111.01727 4279022576
-25.004145 -15.876072 111.31248 4282631411
-23.180122 -15.699615 111.64853 4283418868
-21.47053 -15.667199 111.91112 4284337653
-19.82052 -15.720814 112.12543 4281975283
-17.583424 -15.950806 112.34841 4282369011
-15.8223 -15.752386 112.59099 4284731125
-13.822254 -15.731217 112.79219 4282565875
-12.215309 -15.435249 113.0004 4283090932
-10.133488 -15.861685 113.05246 4282565875
-8.3362627 -15.778461 113.1818 4284731125
-6.4137206 -15.801316 113.26958 4283222004
-4.6340175 -15.699862 113.35857 4283747060
-2.7359109 -15.620407 113.42351 4289849338
-0.80621207 -15.915362 113.37501 4294179838
1.0423369 -15.791949 113.40343 4294967295
2.7898092 -15.684116 113.40733 4294967295
4.6243353 -15.802475 113.33423 4294967295
6.7251625 -15.773142 113.26291 4294967295
8.2933102 -15.595627 113.22781 4288930553
10.125299 -15.770414 113.07497 4283222004
12.147347 -15.63087 112.95974 4278563312
13.805389 -15.817822 112.773 4278235376
15.778027 -15.700378 112.60801 4278235376
17.825615 -15.872602 112.33878 4278235376
19.445332 -15.792727 112.15734 4278235376
21.196985 -15.835666 111.91009 4278235376
23.233765 -15.808443 111.61446 4278235376
25.075996 -15.674055 111.34814 4278235376
27.014263 -15.702579 111.00221 4278300912
28.872004 -15.858493 110.61558 4279547633
30.535954 -15.729798 110.31146 4279350769
32.490101 -15.785442 109.88037 4284665589
34.343159 -15.581721 109.50529 4284403189
36.271919 -15.811123 108.98608 4284074997
38.147663 -15.90571 108.48421 4282828276
39.813496 -15.67578 108.08856 4283550196
41.862179 -15.76389 107.48769 4280072433
43.784477 -15.795279 106.90605 4278366448
45.5256 -15.887647 106.33971 4278235376
47.328991 -15.721948 105.7867 4278235376
49.178787 -15.734072 105.15098 4278235376
51.153637 -15.641004 104.46466 4278235376
52.845718 -15.685425 103.82332 4278235376
54.635376 -15.927821 103.07577 4278235376
56.735287 -15.75701 102.26346 4278235376
58.447575 -15.814956 101.5294 4279547633
60.574188 -15.944762 100.56903 4287486968
62.228146 -15.709442 99.865692 4291948796
63.93475 -15.819203 99.038406 4294967295
66.02095 -15.724296 98.038101 4294967295
67.869919 -15.766561 97.090363 4294967295
69.71209 -15.654667 96.144409 4294967295
71.564896 -15.674356 95.131943 4294967295
73.40612 -15.720128 94.086243 4294967295
75.433372 -15.726528 92.903267 4293851646
77.106537 -15.681243 91.904182 4283550196
78.97551 -15.675475 90.743828 4278235376
80.796028 -15.800208 89.552094 4278235376
82.443001 -15.607601 88.499817 4278235376
84.445549 -15.82962 87.093636 4278235376
86.495644 -15.524456 85.703537 4278235376
88.132744 -15.799148 84.464104 4278235376
89.930595 -15.720683 83.133934 4280466162
91.9506 -15.898967 81.545181 4288865017
93.759132 -15.63121 80.152946 4294967295
95.720604 -15.671679 78.538536 4294967295
97.536316 -15.745833 76.99337 4294967295
99.210403 -15.708088 75.547005 4294967295
101.05106 -15.723234 73.903419 4294967295
103.0181 -15.740575 72.094749 4294967295
105.05343 -15.849958 70.151749 4294967295
106.80785 -15.878298 68.438828 4294967295
108.73158 -15.919106 66.506866 4294967295
110.5273 -15.961212 64.652496 4294967295
112.27708 -15.823287 62.821899 4294967295
114.12171 -15.849605 60.816109 4294967295
116.03425 -15.747967 58.694798 4294967295
117.84552 -15.740074 56.618671 4294967295
119.72726 -15.720422 54.404472 4294967295
121.64757 -15.657208 52.086582 4294967295
123.53703 -15.701422 49.730839 4294967295
125.25094 -15.861155 47.526798 4294967295
127.31014 -15.854126 44.828373 4294967295
129.0713 -15.684313 42.472176 4294967295
130.93329 -15.977407 39.874523 4294967295
132.87585 -15.583139 37.150974 4294967295
134.7458 -15.691073 34.418053 4294967295
136.51733 -15.60907 31.776628 4294967295
138.35623 -15.796763 28.947958 4294967295
140.01851 -15.840968 26.33806 4294967295
142.09444 -15.659078 23.006805 4294967295
143.7818 -15.784388 20.215164 4294967295
145.85718 -15.827154 16.699192 4294967295
147.56424 -15.683984 13.738317 4290493371
149.61426 -15.797378 10.083156 4282927176
151.39354 -15.923092 6.8296504 4278190080
152.96449 -15.827981 3.8955798 4278190080
154.96376 -15.680252 0.070298582 4278190080
-156.29803 -13.647287 0 4278190080
-154.9267 -13.783271 0.14269383 4278190080
-153.23419 -13.911284 3.3983943 4278190080
-151.28522 -13.991765 7.0570459 4279440147
-149.34341 -13.954421 10.610305 4288124823
-147.43385 -14.028034 14.013384 4294177779
-145.85884 -13.981187 16.758018 4294967295
-143.96043 -13.915763 19.990719 4294967295
-142.00508 -13.896049 23.233528 4294967295
-140.07933 -13.846813 26.345831 4294967295
-138.04173 -13.851655 29.548573 4294967295
-136.37379 -13.970305 32.097595 4294967295
-134.53413 -13.726183 34.864689 4294967295
-132.80524 -14.014817 37.368515 4294967295
-130.94878 -14.129835 40.001785 4294967295
-128.99965 -13.874755 42.722633 4294967295
-127.09624 -13.987002 45.281193 4294967295
-125.34691 -13.96179 47.583035 4294967295
-123.70183 -13.96879 49.693626 4294967295
-121.76475 -14.081837 52.105923 4294967295
-119.67243 -13.92996 54.663971 4294967295
-117.98779 -14.123436 56.63615 4294967295
-116.06075 -13.792263 58.892235 4294967295
-114.1107 -14.02727 61.050598 4294967295
-112.35196 -13.976339 62.973507 4294967295
-110.358 -13.884723 65.098709 4294967295
-108.52962 -13.873243 66.984718 4294967295
-106.76742 -13.802932 68.761925 4294967295
-105.09824 -13.935381 70.37709 4294967295
-103.01945 -13.955198 72.350029 4294967295
-101.06809 -13.854064 74.16214 4294967295
-99.175285 -14.007895 75.834129 4294967295
-97.668869 -14.097326 77.133644 4293786109
-95.645576 -14.027176 78.858566 4283747060
-93.871941 -13.878135 80.339691 4278235376
-91.872589 -13.808938 81.946472 4281975283
-89.946831 -14.087724 83.393188 4284271861
-88.073341 -13.79702 84.843941 4288208888
-86.312683 -14.001311 86.093521 4292276988
-84.438087 -13.87655 87.438042 4294442238
-82.551674 -13.990291 88.710884 4293720573
-80.920364 -13.991761 89.794609 4294967295
-78.842323 -14.001665 91.130615 4293720573
-77.193199 -13.828035 92.188179 4294967295
-75.146515 -13.898961 93.41127 4294376702
-73.490822 -13.874109 94.382484 4294704638
-71.554817 -14.060198 95.443962 4292670716
-69.616905 -13.959257 96.519363 4288471289
-67.707214 -13.910306 97.533615 4281056754
-65.895721 -13.881787 98.459633 4278629104
-64.120514 -13.951708 99.318573 4278235376
-62.112865 -13.849537 100.28765 4278235376
-60.412807 -14.169285 101.00269 4278235376
-58.546314 -13.851546 101.88381 4278235376
-56.795013 -14.040424 102.58977 4278235376
-54.760326 -13.855758 103.45324 4278235376
-52.868675 -13.664373 104.22769 4284074997
-51.05801 -13.847819 104.87035 4292145660
-49.22662 -13.960448 105.50587 4294967295
-47.416527 -13.887021 106.14296 4294967295
-45.517563 -14.006548 106.74386 4294967295
-43.665752 -13.967166 107.33298 4294967295
-41.781517 -13.896671 107.9108 4286830839
-40.050694 -13.897037 108.40424 4279744497
-37.972321 -13.862628 108.97341 4278235376
-36.201084 -13.759227 109.44761 4278235376
-34.680767 -13.90906 109.78771 4278235376
-32.417587 -14.046165 110.27917 4278235376
-30.598701 -13.674179 110.74577 4278235376
-28.903595 -14.065762 111.00787 4278432240
-26.943865 -14.004901 111.39075 4284271861
-25.14138 -14.118576 111.6834 4289718010
-23.286226 -13.986985 112.01293 4293129981
-21.409491 -14.059196 112.27886 4291358203
-19.425936 -14.036781 112.55425 4292867581
-17.722546 -13.709807 112.83348 4293786109
-15.593678 -13.866734 113.03689 4292605180
-13.61201 -13.782965 113.24653 4293129981
-12.211686 -13.76778 113.36958 4294245374
-10.316958 -13.932797 113.47629 4292605180
-8.4619122 -13.811916 113.61686 4292998909
-6.2809148 -13.984076 113.68674 4291948796
-4.5603709 -14.030012 113.73849 4292670716
-2.6087618 -13.867057 113.81915 4294967295
-0.85446918 -13.95466 113.82066 4294967295
0.97506952 -13.831483 113.84593 4294967295
2.8067474 -13.787991 113.83221 4294967295
4.81144 -13.871942 113.76422 4294967295
6.6893392 -13.809979 113.70596 4292342524
8.192584 -13.875072 113.61842 4287159032
10.288969 -13.968003 113.47076 4278628848
11.884709 -13.869423 113.37443 4278235376
13.895947 -13.997993 113.1755 4278235376
15.872158 -14.070514 112.96483 4278235376
17.70536 -13.9504 112.78542 4278235376
19.38073 -13.938206 112.58083 4278235376
21.500315 -13.810288 112.3178 4278235376
23.014954 -13.770396 112.10004 4278235376
25.017658 -13.90451 111.74902 4278366448
26.887333 -13.99001 111.40412 4282041075
28.794231 -13.89231 111.06519 4285190646
30.527988 -13.766431 110.74178 4290636539
32.691887 -14.076817 110.21187 4290505467
34.30352 -14.093096 109.83916 4292276988
36.259399 -13.924215 109.39971 4293129981
38.092136 -13.990644 108.91597 4292670716
40.022415 -13.897156 108.41209 4289980410
41.909508 -13.936681 107.86536 4286896631
43.582424 -13.969048 107.35812 4282434803
45.59787 -14.10661 106.698 4278235376
47.294006 -13.851283 106.19117 4278300912
49.164173 -14.012621 105.51752 4278235376
51.09528 -13.908922 104.84482 4278235376
53.09787 -13.974316 104.0804 4278235376
54.81773 -13.965909 103.40922 4278235376
56.609806 -14.076369 102.6597 4278235376
58.298462 -14.010351 101.96037 4278235376
60.287647 -13.803053 101.12783 4280400625
62.067726 -14.100153 100.2617 4288208888
64.255386 -13.921155 99.259033 4294245374
66.074539 -13.88782 98.369041 4294967295
67.852631 -13.889462 97.462082 4294967295
69.779808 -13.839414 96.453369 4294967295
71.665031 -13.88852 95.413254 4294967295
73.29129 -13.728552 94.522408 4294967295
75.341965 -13.967379 93.283371 4293982974
77.252083 -13.783155 92.159592 4283550196
79.026016 -14.068538 91.002884 4278235376
80.711311 -14.026543 89.925499 4278235376
82.602814 -13.767467 88.71302 4278235376
84.548347 -13.911249 87.355659 4278235376
86.294662 -13.907187 86.121544 4278235376
87.982574 -14.014688 84.876656 4278235376
90.019936 -13.934847 83.361336 4278825968
91.653923 -13.855159 82.110992 4290177274
93.982956 -13.90816 80.245087 4294967295
95.429176 -13.849909 79.064827 4294967295
97.379387 -13.89329 77.411804 4294967295
99.33194 -13.816898 75.722725 4294967295
100.9869 -13.959273 74.221321 4294967295
102.99257 -13.931976 72.378288 4294967295
104.79987 -13.975037 70.659286 4294967295
106.71056 -13.821449 68.815865 4294967295
108.55438 -14.060295 66.936195 4294967295
110.33749 -13.902154 65.118027 4294967295
112.3693 -14.038923 62.947475 4294967295
114.12049 -13.821875 61.063099 4294967295
116.06635 -13.932693 58.870583 4294967295
117.97297 -13.737628 56.694122 4294967295
119.85814 -14.050629 54.429054 4294967295
121.57356 -13.791425 52.369713 4294967295
123.61647 -13.855577 49.812298 4294967295
125.16621 -14.099506 47.805016 4294967295
127.08141 -13.869666 45.310814 4294967295
129.01062 -14.069611 42.692112 4294967295
130.76146 -14.079702 40.268326 4294967295
132.81168 -14.053609 37.356518 4294967295
134.4325 -13.873705 35.00523 4294967295
136.70996 -13.88673 31.592152 4294967295
138.21823 -13.865109 29.27392 4294967295
140.19586 -13.90528 26.157106 4294967295
142.07858 -13.888577 23.113527 4294967295
143.89629 -13.864608 20.100349 4294967295
145.76285 -13.86255 16.92708 4294967295
147.52498 -13.900591 13.856181 4290888129
149.45457 -13.91491 10.410163 4280098077
151.28149 -13.830776 7.0660572 4278190080
153.10194 -14.001595 3.6491156 4278190080
154.61731 -14.232205 0.74281073 4278190080
-156.43913 -12.136925 0 4278190080
-154.83316 -12.028175 0.32555261 4278190080
-153.28934 -11.9796 3.3044331 4278190080
-151.45905 -11.98719 6.7578883 4278190080
-149.39969 -12.031765 10.543612 4288059030
-147.71904 -12.00367 13.557885 4294243572
-145.74713 -12.023731 17.007885 4294967295
-143.68018 -12.14356 20.523624 4294967295
-142.01535 -12.14986 23.287066 4294967295
-140.09496 -12.123353 26.399389 4294967295
-138.45262 -12.249006 28.990408 4294967295
-136.31584 -12.129866 32.288349 4294967295
-134.58115 -12.023902 34.896755 4294967295
-132.77974 -12.13868 37.527573 4294967295
-130.90105 -12.192137 40.20504 4294967295
-128.81129 -12.007974 43.118141 4294967295
-127.43105 -12.045821 44.985508 4294967295
-125.22962 -12.041833 47.89397 4294967295
-123.49837 -12.126952 50.111279 4294967295
-121.686 -12.255999 52.370346 4294967295
-119.74633 -11.931121 54.763355 4294967295
-117.95995 -12.196861 56.860222 4294967295
-115.94128 -12.097866 59.200344 4294967295
-114.35567 -12.019567 60.991432 4294967295
-112.42081 -12.131239 63.101269 4294967295
-110.63263 -11.992764 65.022522 4294967295
-108.64046 -12.047371 67.082726 4294967295
-106.70331 -12.11877 69.025482 4294967295
-104.92613 -12.076273 70.770302 4294967295
-102.92622 -12.044489 72.676903 4294967295
-101.25961 -11.999621 74.224251 4294967295
-99.248199 -12.074915 76.024368 4294967295
-97.479012 -12.118212 77.564163 4293458173
-95.648659 -12.230136 79.103973 4282697203
-93.633682 -11.963445 80.797989 4283025140
-91.881577 -12.024925 82.190887 4288208888
-90.136948 -12.155916 83.529533 4291752188
-88.175629 -12.174861 85.006149 4293982974
-86.303085 -12.114613 86.383095 4294967295
-84.747459 -12.024232 87.501007 4294967295
-82.681168 -11.933161 88.938408 4294967295
-80.964951 -12.059265 90.066483 4294967295
-78.823944 -12.205117 91.428192 4294967295
-77.128632 -12.081555 92.505775 4294967295
-75.289001 -12.098624 93.617699 4294967295
-73.193474 -12.068336 94.848137 4294967295
-71.425705 -12.174908 95.830444 4294967295
-69.612389 -11.98625 96.850945 4294967295
-67.896461 -12.037082 97.751045 4288471289
-65.815445 -12.111281 98.801659 4278628848
-64.093071 -12.132049 99.645935 4278235376
-62.23563 -11.949132 100.55788 4278235376
-60.431396 -12.094674 101.36121 4278235376
-58.41877 -12.152885 102.2387 4278235376
-56.737289 -12.044484 102.96976 4278235376
-54.82505 -12.34086 103.7009 4278235376
-52.937664 -12.120994 104.47736 4281056754
-51.108044 -11.955974 105.19286 4290308602
-49.262367 -11.977978 105.85468 4294967295
-47.397987 -12.215871 106.45767 4294967295
-45.502666 -11.985255 107.12231 4294967295
-43.769058 -12.215565 107.62917 4294967295
-41.92004 -12.011459 108.22123 4289192953
-39.89835 -11.953748 108.80942 4278957040
-37.948441 -12.192616 109.29556 4278235376
-36.027054 -11.845467 109.84806 4278235376
-34.322422 -11.988683 110.23648 4278235376
-32.614639 -11.902654 110.64397 4278235376
-30.700584 -12.014751 111.03872 4278235376
-28.74435 -12.128192 111.41457 4278760176
-26.826902 -12.031654 111.79337 4285977846
-24.864326 -12.229532 112.10074 4294311166
-23.071114 -11.943807 112.44188 4294967295
-21.569006 -11.905435 112.67421 4294967295
-19.48568 -12.28063 112.89319 4294967295
-17.49155 -12.16191 113.16151 4294967295
-15.720991 -12.044228 113.37913 4294967295
-13.952277 -12.035545 113.55553 4294967295
-12.045712 -12.045641 113.71853 4294967295
-10.331137 -11.944922 113.86415 4294967295
-8.4513063 -12.087248 113.95543 4294967295
-6.3179111 -11.957547 114.08337 4294967295
-4.6585307 -12.206679 114.09812 4294967295
-2.8002958 -12.074145 114.16831 4294967295
-0.88264745 -12.268796 114.1558 4294967295
1.0518236 -12.05543 114.19401 4294967295
2.7840333 -11.854707 114.20834 4294967295
4.6023436 -12.069233 114.12508 4294967295
6.6179619 -11.936898 114.07424 4285780982
8.4397516 -12.153309 113.94398 4279875569
10.296453 -12.085103 113.84111 4278235376
11.933343 -11.921913 113.74983 4278235376
13.986677 -12.172836 113.52731 4278235376
15.792263 -12.173099 113.34818 4278235376
17.647741 -12.046857 113.16406 4278235376
19.605536 -12.168477 112.89803 4278235376
21.203907 -12.130889 112.68618 4278235376
23.423567 -11.968263 112.38234 4279416305
25.248547 -12.002703 112.07657 4286765303
26.894691 -12.123919 111.76452 4291161595
28.82872 -12.220669 111.38142 4293129981
30.519598 -12.136116 111.05495 4294639102
32.522102 -12.032217 110.64189 4294967295
34.246666 -12.10047 110.23467 4294967295
36.335747 -11.943473 109.75393 4294967295
38.006927 -12.045424 109.306 4294967295
39.940216 -12.158278 108.76221 4294967295
41.934288 -11.917769 108.23312 4294967295
43.734127 -12.138839 107.65327 4289192953
45.48106 -12.005911 107.12576 4284337397
47.337288 -11.910806 106.5301 4280269297
49.352127 -12.178153 105.78906 4278235376
50.994713 -12.282302 105.17938 4278235376
52.815292 -12.03404 104.53881 4278235376
54.856056 -12.058227 103.73592 4278235376
56.468571 -12.071511 103.07697 4278235376
58.475044 -12.035942 102.23357 4278235376
60.292015 -12.12207 101.41936 4278432240
62.126102 -11.946062 100.60942 4282762740
64.119339 -12.063278 99.644211 4293523709
65.883049 -12.042535 98.778679 4294967295
67.781105 -11.87534 97.836105 4294967295
69.800934 -12.010723 96.745621 4294967295
71.465202 -12.011737 95.833549 4294967295
73.403824 -12.175144 94.710892 4294967295
75.165344 -12.019116 93.703224 4294179838
77.000961 -11.964414 92.601578 4283418868
78.922127 -11.957255 91.402168 4278235376
80.718117 -11.991205 90.238342 4278235376
82.504044 -12.091752 89.035759 4278235376
84.704948 -12.044967 87.527916 4278235376
86.382729 -12.05136 86.334488 4278235376
88.312546 -12.133844 84.910034 4278235376
89.913803 -12.106436 83.706879 4280991218
91.958817 -12.120712 82.117371 4289718010
93.790169 -12.090644 80.654594 4294967295
95.752785 -11.916311 79.056473 4294967295
97.648636 -12.175199 77.410759 4294967295
99.504944 -11.910056 75.816437 4294967295
101.24364 -11.993117 74.239594 4294967295
103.14214 -12.14971 72.462006 4294967295
105.28079 -12.019592 70.433136 4294967295
106.77561 -11.961171 68.971046 4294967295
108.58065 -12.233555 67.123688 4294967295
110.60527 -12.18539 65.031235 4294967295
112.29224 -12.142404 63.238926 4294967295
114.13858 -12.07041 61.22747 4294967295
116.10021 -12.22282 59.007397 4294967295
117.95447 -11.965178 56.887756 4294967295
119.66088 -12.076739 54.853355 4294967295
121.64328 -12.262021 52.422619 4294967295
123.56521 -12.107895 50.027973 4294967295
125.24875 -12.029679 47.870018 4294967295
127.20721 -12.208037 45.273533 4294967295
129.12483 -11.980251 42.690136 4294967295
131.11284 -12.047406 39.915615 4294967295
132.77425 -12.091954 37.53833 4294967295
134.69296 -12.038632 34.730034 4294967295
136.436 -12.097163 32.107445 4294967295
138.41342 -12.121341 29.057663 4294967295
140.14771 -12.07555 26.317028 4294967295
142.05132 -12.334032 23.221075 4294967295
143.924 -11.897912 20.121487 4294967295
145.76906 -12.286439 16.962833 4294967295
147.62289 -12.180404 13.724364 4291282887
149.49756 -12.179515 10.363562 4281084972
151.49583 -12.119656 6.6878815 4278190080
153.42242 -12.184815 3.0490255 4278190080
154.87787 -12.175857 0.23832767 4278190080
-154.9633 -10.147704 0.071866587 4278190080
-153.18974 -10.280449 3.5032663 4278190080
-151.44806 -10.053453 6.7974787 4278716424
-149.69478 -10.364936 10.032166 4286545791
-147.67667 -10.140439 13.670215 4294375158
-145.82498 -10.075815 16.921452 4294967295
-143.71175 -10.366399 20.524822 4294967295
-142.01141 -10.303407 23.357456 4294967295
-140.26666 -10.009285 26.205395 4294967295
-138.20406 -10.114592 29.471148 4294967295
-136.41629 -10.188853 32.227879 4294967295
-134.32657 -10.320715 35.362366 4294967295
-132.87639 -10.284327 37.490654 4294967295
-130.91183 -10.182808 40.309456 4294967295
-128.84425 -10.169289 43.189259 4294967295
-127.26302 -10.241368 45.330994 4294967295
-125.39754 -10.303755 47.797863 4294967295
-123.64024 -10.223398 50.071705 4294967295
-121.62743 -10.335938 52.593338 4294967295
-119.79836 -10.294615 54.832386 4294967295
-117.9333 -10.217799 57.05851 4294967295
-115.97184 -10.277214 59.325089 4294967295
-114.07996 -10.163496 61.46439 4294967295
-112.17202 -10.169697 63.553082 4294967295
-110.39098 -10.272866 65.441818 4294967295
-108.43944 -10.140635 67.476173 4294967295
-106.98076 -10.111714 68.952614 4294967295
-104.87277 -10.069996 71.030052 4294967295
-103.31795 -10.135334 72.511322 4294967295
-101.09059 -10.142282 74.580833 4294967295
-99.135979 -10.059649 76.348343 4294967295
-97.518356 -10.311201 77.738258 4293786109
-95.737206 -10.006519 79.288506 4292408316
-93.813705 -10.292841 80.850227 4289980410
-91.857986 -9.9359055 82.458992 4294376702
-90.045151 -10.405092 83.818443 4294967295
-88.236473 -10.080859 85.223045 4294967295
-86.301071 -10.336915 86.612762 4294967295
-84.441849 -10.070509 87.965347 4294967295
-82.696609 -10.29024 89.142761 4294967295
-80.876915 -10.390494 90.347839 4294967295
-78.875031 -10.149497 91.67382 4294967295
-77.044136 -10.362808 92.79409 4294967295
-75.231407 -10.32386 93.898682 4294967295
-73.284897 -10.118547 95.066986 4294967295
-71.428886 -10.245096 96.103149 4294967295
-69.588814 -10.183357 97.119781 4294639102
-67.856522 -10.272637 98.026527 4289061881
-66.003242 -10.159137 98.991539 4280991218
-64.232704 -10.156438 99.868484 4278235376
-62.148247 -10.356705 100.83505 4278235376
-60.119404 -10.400182 101.75723 4278235376
-58.563061 -10.184284 102.47373 4278235376
-56.722313 -10.378243 103.23064 4278235376
-54.869343 -10.209461 104.01321 4278235376
-52.951908 -10.142355 104.77649 4281384946
-51.202454 -10.314521 105.41241 4291227131
-49.479179 -10.249454 106.04688 4294967295
-47.38406 -10.11178 106.79346 4294967295
-45.581436 -10.124361 107.38844 4294967295
-43.880154 -10.372003 107.89153 4294967295
-41.808819 -10.016568 108.5686 4288930553
-39.855591 -10.34217 109.08003 4279416305
-37.876293 -10.213 109.6355 4278235376
-36.228497 -10.255994 110.05291 4278235376
-34.271488 -10.234542 110.53288 4278235376
-32.452877 -10.243689 110.94904 4278235376
-30.828045 -10.105941 111.32209 4278235376
-28.787943 -10.312417 111.70653 4278366448
-27.084949 -10.194189 112.04822 4282762739
-24.810446 -10.430694 112.41238 4294967295
-23.294645 -10.12112 112.70605 4294967295
-21.298941 -10.261045 112.98489 4294967295
-19.568644 -10.192204 113.23313 4294967295
-17.77043 -10.236989 113.45154 4294967295
-15.806754 -10.404681 113.64629 4294967295
-13.796293 -10.143505 113.88529 4294967295
-12.111524 -10.144449 114.03069 4294967295
-10.190537 -10.130987 114.17539 4294967295
-8.4166241 -10.173449 114.27866 4294967295
-6.589653 -10.348156 114.34271 4294967295
-4.5657139 -10.122824 114.45242 4294967295
-2.9771378 -10.162568 114.48608 4294967295
-0.7918663 -10.121869 114.51962 4294967295
0.90016675 -10.173595 114.5111 4294967295
2.7649438 -10.092302 114.50086 4294967295
4.6411514 -10.146485 114.4465 4293064445
6.6124806 -10.374882 114.33754 4284534261
8.6641541 -10.175341 114.26432 4278235376
10.263442 -10.21673 114.1573 4278235376
11.844072 -10.322073 114.02472 4278235376
13.890764 -10.169352 113.87262 4278235376
15.725224 -10.169491 113.69113 4278235376
17.634274 -10.01312 113.50158 4278235376
19.326778 -10.160887 113.26948 4278235376
21.370228 -10.357608 112.95982 4278694640
23.191818 -10.185179 112.71252 4286568439
25.063402 -10.284784 112.39207 4290505467
26.99732 -10.155917 112.07008 4294967295
28.769732 -10.142056 111.73576 4294967295
30.754387 -10.199146 111.32374 4294967295
32.384342 -10.274446 110.95969 4294967295
34.211941 -10.251774 110.54436 4294967295
36.280174 -10.254823 110.0401 4294967295
38.099548 -10.184078 109.58076 4294967295
39.992992 -10.484464 109.02038 4294967295
41.762917 -10.223239 108.55215 4294967295
43.59684 -10.145844 108.01208 4294967295
45.483429 -10.242566 107.40308 4291752188
47.40361 -10.330586 106.75538 4284206325
49.16021 -10.093739 106.18204 4279941361
51.108135 -10.423831 105.43151 4278235376
52.715858 -10.280649 104.8476 4278235376
54.711067 -10.381902 104.05228 4278235376
56.656219 -10.276013 103.27259 4278235376
58.492111 -10.383653 102.47681 4278235376
60.447876 -10.190004 101.63851 4278235376
62.261013 -10.332792 100.78563 4280531954
64.063843 -10.334031 99.926559 4285977846
65.851364 -10.135558 99.071037 4294179838
67.883774 -10.191715 98.023003 4294967295
69.784401 -10.371149 96.98951 4294967295
71.538589 -9.9567337 96.078796 4294967295
73.426765 -10.507811 94.934814 4294967295
75.191025 -10.146547 93.945251 4292408316
77.046242 -10.126934 92.82235 4282697204
78.882431 -10.107811 91.67421 4278235376
80.930893 -10.021481 90.357109 4278235376
82.737389 -10.265488 89.118034 4278235376
84.573196 -10.159687 87.862885 4278235376
86.424713 -10.23776 86.535088 4278235376
88.199387 -10.21521 85.235359 4278235376
90.162209 -10.37549 83.731956 4280072433
92.021355 -10.275742 82.29245 4289455353
93.806725 -10.160826 80.870308 4294967295
95.507965 -10.408837 79.437866 4294967295
97.633087 -10.389594 77.630714 4294967295
99.512367 -10.128057 76.006775 4294967295
101.28491 -10.339868 74.383186 4294967295
103.09755 -10.143724 72.718513 4294967295
104.91673 -10.1629 70.978699 4294967295
106.78414 -10.534857 69.109009 4294967295
108.81712 -10.162354 67.087357 4294967295
110.60005 -10.087992 65.237831 4294967295
112.47434 -10.276448 63.216846 4294967295
114.08617 -10.319699 61.444527 4294967295
115.91071 -10.280676 59.39455 4294967295
117.91225 -10.232527 57.082108 4294967295
119.89894 -10.438734 54.700172 4294967295
121.66199 -10.322973 52.551449 4294967295
123.4798 -10.3895 50.264683 4294967295
125.32818 -10.137695 47.899185 4294967295
127.11781 -10.331368 45.520123 4294967295
128.95711 -10.223064 43.031143 4294967295
130.9671 -10.098992 40.235859 4294967295
132.77516 -10.272648 37.638096 4294967295
134.45853 -10.463842 35.159847 4294967295
136.49663 -10.470336 32.093014 4294967295
138.37062 -10.264301 29.204668 4294967295
140.04024 -10.116796 26.565083 4294967295
142.12752 -10.181456 23.17004 4294967295
143.86407 -10.165125 20.273558 4294967295
145.7337 -10.309989 17.074205 4294967295
147.73396 -10.246793 13.566423 4290888129
149.64067 -10.22426 10.132814 4280098077
151.41826 -10.273503 6.8511448 4278190080
153.06227 -10.177051 3.7473266 4278190080
154.67342 -10.360985 0.63816112 4278190080
